  0.0990799963  0.0260899998  0.52234
  0.0416399986  0.0888800025  0.978470027
  0.190589994  0.789489985  0.906710029
  0.194649994  0.157499999  0.935029984
  0.196490005  0.851429999  0.994819999
  0.0696799979  0.954879999  0.57525003
  0.0342900008  0.455119997  0.519439995
  0.0134699997  0.0163499992  0.995769978
  0.106909998  0.0338400006  0.487179995
  0.162530005  0.907429993  0.768769979
  0.111199997  0.0179099999  0.297179997
  0.0783500001  0.158160001  0.926609993
  0.00193000003  0.105549999  0.944140017
  0.0469099991  0.0100400001  0.0303300004
  0.0194799993  0.577400029  0.70630002
  0.126770005  0.953989983  0.540260017
  0.0843600035  0.112290002  0.472869992
  0.110189997  0.0939700007  0.348199993
  0.150570005  0.96875  0.47231999
  0.158969998  0.148159996  0.449739993
  0.0768100023  0.881900012  0.294450015
  0.0466200002  0.614759982  0.0436800011
  0.168119997  0.00286999997  0.0303000007
  0.250950009  0.790269971  0.84908998
  0.12009  0.973269999  0.777329981
  0.240840003  0.283069998  0.825909972
  0.125699997  0.234940007  0.777989984
  0.0270499997  0.295219988  0.0191900004
  0.178949997  0.829020023  0.877250016
  0.215310007  0.942120016  0.251659989
  0.100220002  0.794279993  0.428220004
  0.0362900011  0.215310007  0.905489981
  0.0366999991  0.237279996  0.833239973
  0.177609995  0.0473500006  0.767639995
  0.0625  0.0156199997  0.328119993
  0.225299999  0.141460001  0.0507100001
  0.00116999994  0.484600008  0.707710028
  0.0864999965  0.108280003  0.379799992
  0.109480001  0.667810023  0.839980006
  0.204150006  0.140939996  0.33081001
  0.0267600007  0.935949981  0.0870900005
  0.204549998  0.644280016  0.311509997
  0.158979997  0.475870013  0.447409987
  0.0128800003  0.751139998  0.406670004
  0.0702600032  0.716799974  0.680819988
  0.0299399998  0.455359995  0.447470009
  0.0811000019  0.69581002  0.0595199987
  0.106679998  0.317600012  0.828620017
  0.116750002  0.94806999  0.28035
  0.0846399963  0.779640019  0.467810005
  0.107179999  0.0324999988  0.595130026
  0.183520004  0.879639983  0.226180002
  0.0994200036  0.563210011  0.65309
  0.0610500015  0.452010006  0.933120012
  0.121529996  0.563600004  0.0213099997
  0.104269996  0.893920004  0.872900009
  0.159740001  0.677540004  0.768779993
  0.126420006  0.625180006  0.558149993
  0.169170007  0.726509988  0.657670021
  0.0389899984  0.769280016  0.945070028
  0.118620001  0.176249996  0.399969995
  0.0608699992  0.787349999  0.916469991
