  0.09919  0.03020  0.52228       33.30    5.00    1   0
  0.18980  0.78752  0.90671       31.96    5.00    2   0
  0.03882  0.08675  0.97758       29.90    5.00    3   0
  0.15051  0.97426  0.47178       29.89    5.00    4   0
  0.24764  0.27881  0.86218       29.52    5.00    5   0
  0.02119  0.57519  0.70578       28.34    5.00    7   0
  0.20327  0.84839  0.99217       27.70    5.00    8   0
  0.04075  0.21601  0.90705       27.20    5.00    9   0
  0.11431  0.01736  0.29700       26.80    5.00   10   0
  0.17091  0.00126  0.03213       26.80    5.00   11   0
  0.16436  0.14628  0.45044       26.62    5.00   12   0
  0.21156  0.13425  0.05300       26.40    5.00   13   0
  0.16440  0.90766  0.77015       26.36    5.00   14   0
  0.23454  0.86303  0.36469       26.07    5.00   15   0
  0.12344  0.23446  0.78041       25.46    5.00   16   0
  0.19220  0.15995  0.93446       24.45    5.00   17   0
  0.19592  0.14018  0.33119       24.35    5.00   18   0
  0.03843  0.45737  0.52053       24.19    5.00   19   0
  0.09511  0.10791  0.37813       23.53    5.00   20   0
  0.07724  0.87910  0.29145       23.33    5.00   21   0
  0.04187  0.23837  0.83213       23.08    5.00   22   0
  0.10354  0.88517  0.87323       22.74    5.00   23   0
  0.07587  0.11675  0.47369       22.37    5.00   24   0
  0.17754  0.05197  0.76646       22.24    5.00   25   0
  0.04450  0.01601  0.03093       21.92    5.00   26   0
  0.24259  0.06534  0.04154       21.70    5.00   27   0
  0.11291  0.03318  0.48821       21.17    5.00   29   0
  0.13554  0.82106  0.93604       20.65    5.00   30   0
  0.12677  0.95102  0.53954       20.56    5.00   31   0
  0.24647  0.79180  0.84920       20.46    5.00   33   0
  0.22598  0.84140  0.96225       20.12    5.00   34   0
  0.12906  0.24778  0.81087       19.75    5.00   35   0
  0.04310  0.61160  0.04362       19.45    5.00   36   0
  0.17058  0.82714  0.87674       19.30    5.00   37   0
  0.17493  0.73571  0.82497       19.21    5.00   38   0
  0.00072  0.59962  0.55642       19.16    5.00   39   0
  0.00821  0.01320  0.99304       19.07    5.00   40   0
  0.12658  0.97894  0.77522       19.07    5.00   41   0
  0.24049  0.79647  0.37882       18.90    5.00   43   0
  0.06866  0.95289  0.57437       18.79    5.00   44   0
  0.22850  0.78013  0.41659       18.77    5.00   45   0
  0.11833  0.09467  0.34857       18.67    5.00   46   0
  0.08018  0.16499  0.92729       18.64    5.00   47   0
  0.24422  0.27519  0.82592       18.28    5.00   48   0
  0.10324  0.79583  0.42897       18.24    5.00   50   0
  0.02322  0.45204  0.44781       18.06    5.00   51   0
  0.20258  0.94891  0.25116       17.97    5.00   52   0
  0.08907  0.56745  0.65263       17.86    5.00   53   0
  0.12341  0.94099  0.28118       17.77    5.00   54   0
  0.07035  0.70464  0.67952       17.72    5.00   55   0
  0.01078  0.98701  0.79425       17.63    5.00   56   0
  0.06291  0.60783  0.67662       17.05    5.00   57   0
  0.06196  0.02059  0.33032       16.97    5.00   58   0
  0.19155  0.87836  0.22553       16.61    5.00   59   0
  0.13194  0.56592  0.02162       16.46    5.00   60   0
  0.08323  0.70130  0.05366       16.23    5.00   61   0
  0.08668  0.76907  0.46590       16.10    5.00   62   0
  0.21826  0.63825  0.31213       16.07    5.00   63   0
  0.17381  0.74073  0.66002       15.33    5.00   64   0
  0.10432  0.02688  0.59650       15.29    5.00   65   0
  0.10799  0.66936  0.84439       15.18    5.00   66   0
  0.04641  0.75740  0.94839       15.08    5.00   67   0
  0.01979  0.74802  0.40628       14.88    5.00   68   0
  0.24656  0.30485  0.29749       14.48    5.00   69   0
  0.02924  0.28960  0.01855       14.46    5.00   71   0
  0.06013  0.45082  0.92966       14.40    5.00   72   0
  0.02266  0.95092  0.08806       14.34    5.00   73   0
  0.12430  0.62650  0.55727       13.81    5.00   74   0
  0.15030  0.47725  0.44756       13.40    5.00   75   0
  0.08367  0.43406  0.72352       12.70    5.00   76   0
  0.06785  0.87959  0.21093       12.49    5.00   77   0
  0.17643  0.83896  0.66307       12.22    5.00   78   0
  0.07199  0.53369  0.17463       11.92    5.00   79   0
  0.21780  0.11738  0.69745       11.87    5.00   80   0
  0.20815  0.43209  0.82476       11.84    5.00   81   0
  0.19613  0.70480  0.07346       11.78    5.00   82   0
  0.21390  0.29518  0.17529       11.75    5.00   83   0
  0.03934  0.39616  0.38803       11.07    5.00   84   0
  0.18725  0.65346  0.76958       10.61    5.00   85   0
  0.22117  0.18893  0.67281        9.71    5.00   86   0
  0.10006  0.62009  0.31669        9.43    5.00   87   0
  0.13162  0.51666  0.14003        8.25    5.00   88   0
  0.09368  0.62028  0.19238        7.59    5.00   89   0
  0.22271  0.12285  0.14731        6.98    5.00   90   0
  